ply
format ascii 1.0
comment pointcloud saved from NG
element vertex 846
property float32 x
property float32 y
property float32 z
end_header
-50.69717255911365 105.76911926269531 12.320037804282038
-50.69717255898996 105.76911926269531 11.320037804282038
-50.69717255886627 105.76911926269531 10.320037804282038
-50.69717255874258 105.76911926269531 9.320037804282038
-50.69717255827692 104.76911926269531 -54.67996219583438
-50.69717255815323 104.76911926269531 -55.67996219583438
-50.69717255426059 106.76911926269531 33.32003780439845
-50.6971725541369 106.76911926269531 32.32003780439845
-50.69717255240522 106.76911926269531 18.320037804398453
-50.69717255228153 106.76911926269531 17.320037804398453
-50.69717255215784 106.76911926269531 16.320037804398453
-50.69717255126872 106.73903990693844 7.320037804394957
-50.69717255116831 106.76911926269531 8.320037804398453
-50.69717255107372 105.76911926269531 -52.67996219571796
-50.69717255095003 105.76911926269531 -53.67996219571796
-50.69717255078322 106.80420326289058 7.320037804402546
-50.697172546562626 107.76911926269531 31.320037804514868
-50.697172546438935 107.76911926269531 30.320037804514868
-50.697172546315244 107.76911926269531 29.320037804514868
-50.69717254619155 107.76911926269531 28.320037804514868
-50.69717254606786 107.76911926269531 27.320037804514868
-50.69717254594417 107.76911926269531 26.320037804514868
-50.69717254582048 107.76911926269531 25.320037804514868
-50.69717254569679 107.76911926269531 24.320037804514868
-50.697172545573096 107.76911926269531 23.320037804514868
-50.697172545449405 107.76911926269531 22.320037804514868
-50.697172545325714 107.76911926269531 21.320037804514868
-50.69717254520202 107.76911926269531 20.320037804514868
-50.69717254507833 107.76911926269531 19.320037804514868
-50.69717254387052 106.76911926269531 -50.67996219560155
-50.69717254374683 106.76911926269531 -51.67996219560155
-50.697172543470344 107.76911926269531 6.320037804514868
-50.69717254334665 107.76911926269531 5.320037804514868
-50.697172536667324 107.76911926269531 -48.67996219548513
-50.69717253654363 107.76911926269531 -49.67996219548513
-50.69717253577238 108.76911926269531 4.3200378046312835
-50.697172529464126 108.76911926269531 -46.67996219536872
-50.697172529340435 108.76911926269531 -47.67996219536872
-50.69717252840164 109.72520064764785 2.320037804742583
-50.69717252819811 109.76911926269531 3.320037804747699
-50.69717252805842 109.76911926269531 2.190620887505929
-50.69717252238462 109.76911926269531 -43.6799621952523
-50.69717252226093 109.76911926269531 -44.6799621952523
-50.69717252213724 109.76911926269531 -45.6799621952523
-50.697172520500146 110.76911926269531 1.3200378048641142
-50.697172520376455 110.76911926269531 0.32003780486411415
-50.69717251530511 110.76911926269531 -40.679962195135886
-50.69717251518142 110.76911926269531 -41.679962195135886
-50.69717251505773 110.76911926269531 -42.679962195135886
-50.69717251280218 111.76911926269531 -0.6799621950194705
-50.6971725125548 111.76911926269531 -2.6799621950194705
-50.697172508225606 111.76911926269531 -37.67996219501947
-50.697172508101914 111.76911926269531 -38.67996219501947
-50.69717250797822 111.76911926269531 -39.67996219501947
-50.69717250498053 112.76911926269531 -3.679962194903055
-50.69717250485684 112.76911926269531 -4.679962194903055
-50.6971725011461 112.76911926269531 -34.679962194903055
-50.69717250102241 112.76911926269531 -35.679962194903055
-50.697172500898716 112.76911926269531 -36.679962194903055
-50.69717249739972 113.73678987607849 -6.6799621947903915
-50.69717249728254 113.76911926269531 -5.67996219478664
-50.697172497035154 113.76911926269531 -7.67996219478664
-50.6971724969886 113.79197039044672 -6.679962194783968
-50.697172494066564 113.76911926269531 -31.67996219478664
-50.69717249394287 113.76911926269531 -32.67996219478664
-50.69717249381918 113.76911926269531 -33.67996219478664
-50.69717248946088 114.76911926269531 -8.679962194670225
-50.69717248933719 114.76911926269531 -9.679962194670225
-50.69717248698706 114.76911926269531 -28.679962194670225
-50.69717248694897 114.75763081725785 -29.67996219467156
-50.697172486739674 114.76911926269531 -30.679962194670225
-50.69717248176292 115.76911926269531 -10.67996219455381
-50.69717248163923 115.76911926269531 -11.67996219455381
-50.69717248151554 115.76911926269531 -12.67996219455381
-50.697172481391846 115.76911926269531 -13.67996219455381
-50.69717248015493 115.76911926269531 -23.67996219455381
-50.69717248003124 115.76911926269531 -24.67996219455381
-50.69717247990755 115.76911926269531 -25.67996219455381
-50.69717247978386 115.76911926269531 -26.67996219455381
-50.69717247966017 115.76911926269531 -27.67996219455381
-50.697172473817574 116.76911926269531 -14.679962194437394
-50.69717247369388 116.76911926269531 -15.679962194437394
-50.69717247357019 116.76911926269531 -16.679962194437394
-50.6971724734465 116.76911926269531 -17.679962194437394
-50.69717247332281 116.76911926269531 -18.679962194437394
-50.69717247319912 116.76911926269531 -19.679962194437394
-50.697172473075426 116.76911926269531 -20.679962194437394
-50.697172472951735 116.76911926269531 -21.679962194437394
-50.69717247282804 116.76911926269531 -22.679962194437394
-50.669918359579185 114.76911926269531 -29.6799621946611
-49.80253137088897 112.76911926269531 -37.67996219460363
-49.70048289973016 106.76911926269531 9.320037804732038
-49.697173074782654 37.76911926269531 85.32003779670049
-49.69717303740606 42.76911926269531 84.32003779728257
-49.697173035885385 39.76911926269531 -108.67996220306668
-49.69717301493063 45.76911926269531 83.32003779763181
-49.697173006206754 43.76911926269531 -107.67996220260102
-49.697172991429284 45.76911926269531 -106.67996220236819
-49.697172984102394 46.76911926269531 -105.67996220225177
-49.697172977554004 50.76911926269531 82.32003779821389
-49.697172976775505 47.76911926269531 -104.67996220213536
-49.697172969448616 48.76911926269531 -103.67996220201894
-49.69717296224539 49.76911926269531 -101.67996220190253
-49.6971729621217 49.76911926269531 -102.67996220190253
-49.69717294762799 54.76911926269531 81.32003779867955
-49.69717294746792 51.76911926269531 -100.6799622016697
-49.69717294014103 52.76911926269531 -99.67996220155328
-49.69717293281414 53.76911926269531 -98.67996220143687
-49.69717292548725 54.76911926269531 -97.67996220132045
-49.69717291816036 55.76911926269531 -96.67996220120403
-49.69717291770198 58.76911926269531 80.32003779914521
-49.69717291083347 56.76911926269531 -95.67996220108762
-49.69717290350658 57.76911926269531 -94.6799622009712
-49.697172902677124 60.76911926269531 79.32003779937804
-49.697172896179694 58.76911926269531 -93.67996220085479
-49.697172888852805 59.76911926269531 -92.67996220073837
-49.69717288765227 62.76911926269531 78.32003779961087
-49.697172881525915 60.76911926269531 -91.67996220062196
-49.697172874199026 61.76911926269531 -90.67996220050554
-49.69717286687214 62.76911926269531 -89.67996220038913
-49.69717286517684 65.76911926269531 77.32003779996012
-49.69717285954525 63.76911926269531 -88.67996220027271
-49.697172850151986 67.76911926269531 76.32003780019295
-49.69717284476778 65.76911926269531 -87.67996220003988
-49.697172842577714 68.76911926269531 75.32003780030936
-49.69717283744089 66.76911926269531 -86.67996219992347
-49.69717283500344 69.76911926269531 74.32003780042578
-49.697172830114 67.76911926269531 -85.67996219980705
-49.69717282278711 68.76911926269531 -84.67996219969064
-49.69717281997859 71.76911926269531 73.32003780065861
-49.69717281546022 69.76911926269531 -83.67996219957422
-49.69717281240432 72.76911926269531 72.32003780077503
-49.69717280068275 71.76911926269531 -82.67996219934139
-49.697172797379466 74.76911926269531 71.32003780100786
-49.697172789805194 75.76911926269531 70.32003780112427
-49.69717278590528 73.76911926269531 -81.67996219910856
-49.69717277478034 77.76911926269531 69.3200378013571
-49.69717277112781 75.76911926269531 -80.67996219887573
-49.69717276720607 78.76911926269531 68.32003780147352
-49.69717276380092 76.76911926269531 -79.67996219875931
-49.6971727596318 79.76911926269531 67.32003780158993
-49.6971727520575 80.76911926269531 66.32003780170635
-49.69717274902345 78.76911926269531 -78.67996219852648
-49.697172744483225 81.76911926269531 65.32003780182276
-49.69717274169656 79.76911926269531 -77.67996219841007
-49.69717273690895 82.76911926269531 64.32003780193918
-49.697172734369644 80.76911926269531 -76.67996219829365
-49.69717272933468 83.76911926269531 63.320037802055595
-49.69717272176041 84.76911926269531 62.32003780217201
-49.697172719592174 82.76911926269531 -75.67996219806082
-49.69717271418614 85.76911926269531 61.320037802288425
-49.697172706611866 86.76911926269531 60.32003780240484
-49.697172704814705 84.76911926269531 -74.67996219782799
-49.697172699037594 87.76911926269531 59.320037802521256
-49.69717269146332 88.76911926269531 58.32003780263767
-49.697172690037235 86.76911926269531 -73.67996219759516
-49.69717268388905 89.76911926269531 57.320037802754086
-49.69717267631478 90.76911926269531 56.3200378028705
-49.697172675259765 88.76911926269531 -72.67996219736233
-49.69717266874051 91.76911926269531 55.32003780298692
-49.697172667932875 89.76911926269531 -71.67996219724591
-49.697172661166235 92.76911926269531 54.32003780310333
-49.697172660605986 90.76911926269531 -70.6799621971295
-49.69717265359196 93.76911926269531 53.32003780321975
-49.69717264601769 94.76911926269531 52.32003780333616
-49.697172645894 94.76911926269531 51.32003780333616
-49.697172645828516 92.76911926269531 -69.67996219689667
-49.69717263850163 93.76911926269531 -68.67996219678025
-49.69717263831973 95.76911926269531 50.32003780345258
-49.69717263117474 94.76911926269531 -67.67996219666384
-49.697172630745456 96.76911926269531 49.320037803568994
-49.697172623171184 97.76911926269531 48.32003780368541
-49.69717261639727 96.76911926269531 -66.679962196431
-49.69717261559691 98.76911926269531 47.320037803801824
-49.69717260919407 97.76911926269531 -64.67996219631459
-49.69717260907038 97.76911926269531 -65.67996219631459
-49.69717260802264 99.76911926269531 46.32003780391824
-49.69717260186718 98.76911926269531 -63.679962196198176
-49.69717260044837 100.76911926269531 45.320037804034655
-49.69717259454029 99.76911926269531 -62.67996219608176
-49.6971725928741 101.76911926269531 44.32003780415107
-49.6971725872134 100.76911926269531 -61.679962195965345
-49.697172585299825 102.76911926269531 43.320037804267486
-49.69717257988651 101.76911926269531 -60.67996219584893
-49.69717257772555 103.76911926269531 42.3200378043839
-49.69717257760186 103.76911926269531 41.3200378043839
-49.69717257255962 102.76911926269531 -59.679962195732514
-49.69717257002759 104.76911926269531 40.320037804500316
-49.6971725699039 104.76911926269531 39.320037804500316
-49.697172566687925 104.76911926269531 13.320037804500316
-49.697172565232734 103.76911926269531 -58.6799621956161
-49.69717256232963 105.76911926269531 38.32003780461673
-49.697172562205935 105.76911926269531 37.32003780461673
-49.697172562082244 105.76911926269531 36.32003780461673
-49.69717255961584 105.70171750163081 12.320037804608887
-49.697172559361036 105.76911926269531 14.320037804616732
-49.697172559237345 105.76911926269531 13.320037804616732
-49.69717255898996 105.76911926269531 11.320037804616732
-49.6971725586605 105.82993974835969 12.320037804623809
-49.697172558029536 104.76911926269531 -56.679962195499684
-49.697172557905844 104.76911926269531 -57.679962195499684
-49.69717255450797 106.76911926269531 35.32003780473315
-49.69717255438428 106.76911926269531 34.32003780473315
-49.69717255426059 106.76911926269531 33.32003780473315
-49.69717255215784 106.76911926269531 16.320037804733147
-49.69717255203415 106.76911926269531 15.320037804733147
-49.69717255146324 106.72953284808358 8.320037804728543
-49.69717255141569 106.76911926269531 10.320037804733147
-49.69717255131005 106.76669564106714 9.320037804732863
-49.69717255128188 106.7704770449248 9.320037804733317
-49.697172551044616 106.76911926269531 7.320037804733147
-49.69717255082634 105.76911926269531 -54.67996219538327
-49.697172550702646 105.76911926269531 -55.67996219538327
-49.69717255066942 106.83607906844946 8.320037804740934
-49.697172546882825 107.72614193877513 31.32003780484456
-49.69717254668632 107.76911926269531 32.32003780484956
-49.697172546438935 107.76911926269531 30.320037804849562
-49.697172546126524 107.8276519449989 31.320037804856383
-49.69717254520202 107.76911926269531 20.320037804849562
-49.69717254507833 107.76911926269531 19.320037804849562
-49.69717254495464 107.76911926269531 18.320037804849562
-49.69717254483095 107.76911926269531 17.320037804849562
-49.69717254362314 106.76911926269531 -52.67996219526685
-49.69717254349945 106.76911926269531 -53.67996219526685
-49.697172543470344 107.76911926269531 6.320037804849562
-49.69717253886466 108.76911926269531 29.320037804965978
-49.69717253874097 108.76911926269531 28.320037804965978
-49.69717253861728 108.76911926269531 27.320037804965978
-49.69717253849359 108.76911926269531 26.320037804965978
-49.6971725383699 108.76911926269531 25.320037804965978
-49.69717253824621 108.76911926269531 24.320037804965978
-49.697172538122516 108.76911926269531 23.320037804965978
-49.697172537998824 108.76911926269531 22.320037804965978
-49.69717253787513 108.76911926269531 21.320037804965978
-49.69717253641994 107.76911926269531 -50.67996219515044
-49.69717253629625 107.76911926269531 -51.67996219515044
-49.69717253589607 108.76911926269531 5.320037804965978
-49.69717253577238 108.76911926269531 4.320037804965978
-49.69717252921674 108.76911926269531 -48.67996219503402
-49.69717252909305 108.76911926269531 -49.67996219503402
-49.69717252847079 109.73251934611307 3.3200378050781296
-49.697172528205385 109.76911926269531 3.3788085435654693
-49.69717252807442 109.76911926269531 2.320037805082393
-49.69717252801752 109.79335621425753 3.3200378050852066
-49.69717252213724 109.76911926269531 -45.67996219491761
-49.697172522013545 109.76911926269531 -46.67996219491761
-49.697172521889854 109.76911926269531 -47.67996219491761
-49.69717252077493 110.73223674961949 1.3200378051945165
-49.697172520510804 110.76911926269531 1.4061966044066878
-49.697172520376455 110.76911926269531 0.3200378051988082
-49.69717252030682 110.79506476151687 1.320037805201821
-49.69717251505773 110.76911926269531 -42.67996219480119
-49.69717251493404 110.76911926269531 -43.67996219480119
-49.69717251481035 110.76911926269531 -44.67996219480119
-49.69717251280218 111.76911926269531 -0.6799621946847765
-49.69717251267849 111.76911926269531 -1.6799621946847765
-49.69717250797822 111.76911926269531 -39.67996219468478
-49.69717250785453 111.76911926269531 -40.67996219468478
-49.69717250773084 111.76911926269531 -41.67996219468478
-49.69717250510422 112.76911926269531 -2.679962194568361
-49.69717250498053 112.76911926269531 -3.679962194568361
-49.697172501252396 112.7050473535507 -37.67996219457581
-49.697172500898716 112.76911926269531 -36.67996219456836
-49.697172500651334 112.76911926269531 -38.67996219456836
-49.69717250043382 112.81491332543618 -37.67996219456302
-49.69717249740623 113.76911926269531 -4.679962194451946
-49.697172497158846 113.76911926269531 -6.679962194451946
-49.69717249381918 113.76911926269531 -33.679962194451946
-49.69717249369549 113.76911926269531 -34.679962194451946
-49.6971724935718 113.76911926269531 -35.679962194451946
-49.697172489584574 114.76911926269531 -7.6799621943355305
-49.69717248946088 114.76911926269531 -8.67996219433553
-49.697172486739674 114.76911926269531 -30.67996219433553
-49.69717248661598 114.76911926269531 -31.67996219433553
-49.69717248649229 114.76911926269531 -32.67996219433553
-49.69717248188661 115.76911926269531 -9.679962194219115
-49.69717248163923 115.76911926269531 -11.679962194219115
-49.69717247978386 115.76911926269531 -26.679962194219115
-49.69717247966017 115.76911926269531 -27.679962194219115
-49.697172479536476 115.76911926269531 -28.679962194219115
-49.697172479412785 115.76911926269531 -29.679962194219115
-49.697172474064956 116.76911926269531 -12.6799621941027
-49.697172473941265 116.76911926269531 -13.6799621941027
-49.69717247369388 116.76911926269531 -15.6799621941027
-49.69717247357019 116.76911926269531 -16.6799621941027
-49.6971724734465 116.76911926269531 -17.6799621941027
-49.69717247332281 116.76911926269531 -18.6799621941027
-49.69717247319912 116.76911926269531 -19.6799621941027
-49.697172473075426 116.76911926269531 -20.6799621941027
-49.697172472951735 116.76911926269531 -21.6799621941027
-49.69717247282804 116.76911926269531 -22.6799621941027
-49.69717247270435 116.76911926269531 -23.6799621941027
-49.69717247258066 116.76911926269531 -24.6799621941027
-49.69717247245697 116.76911926269531 -25.6799621941027
-49.588620006692565 107.76911926269531 31.3200378048859
-49.57350246439054 106.76911926269531 8.320037804774529
-49.57201931552038 105.76911926269531 12.320037804658625
-48.98783741479198 107.76911926269531 7.320037805086969
-48.76523854211652 114.76911926269531 -33.67996219402363
-48.72414354517133 108.76911926269531 30.320037805291648
-48.697173074906345 37.76911926269531 86.32003779703518
-48.69717304498033 41.76911926269531 85.32003779750085
-48.69717303576169 39.76911926269531 -109.67996220273199
-48.69717301505432 45.76911926269531 84.3200377979665
-48.69717299863248 44.76911926269531 -108.67996220214991
-48.697172985128276 49.76911926269531 83.32003779843217
-48.69717298385501 46.76911926269531 -107.67996220191708
-48.69717297652812 47.76911926269531 -106.67996220180066
-48.69717296920123 48.76911926269531 -105.67996220168425
-48.697172961874315 49.76911926269531 -104.67996220156783
-48.69717295520226 53.76911926269531 82.32003779889783
-48.697172954547426 50.76911926269531 -103.67996220145142
-48.69717294722054 51.76911926269531 -102.679962201335
-48.69717294001734 52.76911926269531 -100.67996220121859
-48.69717293989365 52.76911926269531 -101.67996220121859
-48.69717292527625 57.76911926269531 81.32003779936349
-48.69717292523987 54.76911926269531 -99.67996220098576
-48.69717291791298 55.76911926269531 -98.67996220086934
-48.69717291070978 56.76911926269531 -96.67996220075293
-48.69717291058609 56.76911926269531 -97.67996220075293
-48.69717290338289 57.76911926269531 -95.67996220063651
-48.697172902800816 60.76911926269531 80.32003779971274
-48.69717288860542 59.76911926269531 -94.67996220040368
-48.69717288777596 62.76911926269531 79.32003779994557
-48.69717288127853 60.76911926269531 -93.67996220028726
-48.697172874075335 61.76911926269531 -91.67996220017085
-48.697172873951644 61.76911926269531 -92.67996220017085
-48.69717286530053 65.76911926269531 78.32003780029481
-48.697172859297865 63.76911926269531 -90.67996219993802
-48.69717285772626 66.76911926269531 77.32003780041123
-48.697172851970976 64.76911926269531 -89.6799621998216
-48.697172844644086 65.76911926269531 -88.67996219970519
-48.697172842701406 68.76911926269531 76.32003780064406
-48.6971728373172 66.76911926269531 -87.67996219958877
-48.697172835127134 69.76911926269531 75.32003780076047
-48.69717282266342 68.76911926269531 -85.67996219935594
-48.69717282253973 68.76911926269531 -86.67996219935594
-48.69717282010228 71.76911926269531 74.3200378009933
-48.69717281252801 72.76911926269531 73.32003780110972
-48.69717280043537 71.76911926269531 -84.6799621990067
-48.69717279750316 74.76911926269531 72.32003780134255
-48.69717279310848 72.76911926269531 -83.67996219889028
-48.697172789928885 75.76911926269531 71.32003780145897
-48.69717278578159 73.76911926269531 -82.67996219877386
-48.69717277490403 77.76911926269531 70.3200378016918
-48.69717277100412 75.76911926269531 -81.67996219854103
-48.69717276732976 78.76911926269531 69.32003780180821
-48.69717275975549 79.76911926269531 68.32003780192463
-48.69717275622665 77.76911926269531 -80.6799621983082
-48.69717275218119 80.76911926269531 67.32003780204104
-48.69717274889976 78.76911926269531 -79.67996219819179
-48.69717274460692 81.76911926269531 66.32003780215746
-48.697172737032645 82.76911926269531 65.32003780227387
-48.69717273412226 80.76911926269531 -78.67996219795896
-48.69717272679537 81.76911926269531 -77.67996219784254
-48.69717272200779 84.76911926269531 64.3200378025067
-48.69717271946848 82.76911926269531 -76.67996219772613
-48.69717271443352 85.76911926269531 63.32003780262312
-48.69717271430983 85.76911926269531 62.32003780262312
-48.69717270673556 86.76911926269531 61.320037802739535
-48.697172699161285 87.76911926269531 60.32003780285595
-48.69717269724043 85.76911926269531 -75.67996219737688
-48.697172691587014 88.76911926269531 59.320037802972365
-48.69717268991354 86.76911926269531 -74.67996219726047
-48.69717268401274 89.76911926269531 58.32003780308878
-48.69717267643847 90.76911926269531 57.320037803205196
-48.69717267513607 88.76911926269531 -73.67996219702763
-48.6971726688642 91.76911926269531 56.32003780332161
-48.697172667809184 89.76911926269531 -72.67996219691122
-48.697172661289926 92.76911926269531 55.32003780343803
-48.697172653715654 93.76911926269531 54.32003780355444
-48.697172653031714 91.76911926269531 -71.67996219667839
-48.69717264614138 94.76911926269531 53.32003780367086
-48.697172645704825 92.76911926269531 -70.67996219656197
-48.69717263856711 95.76911926269531 52.32003780378727
-48.69717263844342 95.76911926269531 51.32003780378727
-48.697172638377936 93.76911926269531 -69.67996219644556
-48.69717263086915 96.76911926269531 50.32003780390369
-48.697172623600466 95.76911926269531 -68.67996219621273
-48.697172623294875 97.76911926269531 49.3200378040201
-48.697172616273576 96.76911926269531 -67.67996219609631
-48.6971726157206 98.76911926269531 48.32003780413652
-48.69717260894669 97.76911926269531 -66.6799621959799
-48.69717260814633 99.76911926269531 47.320037804252934
-48.6971726016198 98.76911926269531 -65.67996219586348
-48.69717260057206 100.76911926269531 46.32003780436935
-48.69717259429291 99.76911926269531 -64.67996219574707
-48.69717259299779 101.76911926269531 45.320037804485764
-48.69717258696602 100.76911926269531 -63.67996219563065
-48.697172585423516 102.76911926269531 44.32003780460218
-48.69717257976282 101.76911926269531 -61.679962195514236
-48.69717257963913 101.76911926269531 -62.679962195514236
-48.697172577849244 103.76911926269531 43.320037804718595
-48.69717257243593 102.76911926269531 -60.67996219539782
-48.69717257027497 104.76911926269531 42.32003780483501
-48.69717257015128 104.76911926269531 41.32003780483501
-48.69717256510904 103.76911926269531 -59.679962195281405
-48.69717256257701 105.76911926269531 40.320037804951426
-48.69717256245332 105.76911926269531 39.320037804951426
-48.69717256232963 105.76911926269531 38.320037804951426
-48.69717255778215 104.76911926269531 -58.67996219516499
-48.697172554755355 106.76911926269531 37.32003780506784
-48.69717255463166 106.76911926269531 36.32003780506784
-48.69717255450797 106.76911926269531 35.32003780506784
-48.697172551910455 106.76911926269531 14.320037805067841
-48.697172551786764 106.76911926269531 13.320037805067841
-48.69717255166307 106.76911926269531 12.320037805067841
-48.69717255153938 106.76911926269531 11.320037805067841
-48.69717255141569 106.76911926269531 10.320037805067841
-48.697172551292 106.76911926269531 9.320037805067841
-48.697172550455264 105.76911926269531 -57.679962195048574
-48.6971725469337 107.76911926269531 34.320037805184256
-48.69717254681001 107.76911926269531 33.320037805184256
-48.69717254668632 107.76911926269531 32.320037805184256
-48.69717254470726 107.76911926269531 16.320037805184256
-48.697172544583566 107.76911926269531 15.320037805184256
-48.69717254423341 107.68330233973043 7.32003780517428
-48.69717254371773 107.76911926269531 8.320037805184256
-48.697172543470344 107.76911926269531 6.320037805184256
-48.697172543252066 106.76911926269531 -55.67996219493216
-48.697172543128374 106.76911926269531 -56.67996219493216
-48.69717254311476 107.8334456928618 7.32003780519176
-48.697172539112046 108.76911926269531 31.32003780530067
-48.697172539087006 108.75587531289534 30.320037805299137
-48.697172538919546 108.77835356244307 30.32003780530175
-48.69717253886466 108.76911926269531 29.32003780530067
-48.69717253874097 108.76911926269531 28.32003780530067
-48.69717253861728 108.76911926269531 27.32003780530067
-48.69717253849359 108.76911926269531 26.32003780530067
-48.6971725383699 108.76911926269531 25.32003780530067
-48.69717253824621 108.76911926269531 24.32003780530067
-48.697172538122516 108.76911926269531 23.32003780530067
-48.697172537998824 108.76911926269531 22.32003780530067
-48.69717253787513 108.76911926269531 21.32003780530067
-48.69717253775144 108.76911926269531 20.32003780530067
-48.69717253762775 108.76911926269531 19.32003780530067
-48.69717253750406 108.76911926269531 18.32003780530067
-48.69717253738037 108.76911926269531 17.32003780530067
-48.69717253617256 107.76911926269531 -52.679962194815744
-48.69717253604887 107.76911926269531 -53.679962194815744
-48.697172535925176 107.76911926269531 -54.679962194815744
-48.69717253589607 108.76911926269531 5.320037805300672
-48.69717252896936 108.76911926269531 -50.67996219469933
-48.69717252884567 108.76911926269531 -51.67996219469933
-48.6971725283218 109.76911926269531 4.320037805417087
-48.69717252819811 109.76911926269531 3.320037805417087
-48.69717252176616 109.76911926269531 -48.67996219458291
-48.69717252164247 109.76911926269531 -49.67996219458291
-48.69717252062384 110.76911926269531 2.3200378055335023
-48.697172520500146 110.76911926269531 1.3200378055335023
-48.697172514686656 110.76911926269531 -45.6799621944665
-48.697172514562965 110.76911926269531 -46.6799621944665
-48.69717251443927 110.76911926269531 -47.6799621944665
-48.697172512925874 111.76911926269531 0.3200378056499176
-48.69717251280218 111.76911926269531 -0.6799621943500824
-48.69717250773084 111.76911926269531 -41.67996219435008
-48.69717250760715 111.76911926269531 -42.67996219435008
-48.69717250748346 111.76911926269531 -43.67996219435008
-48.69717250735977 111.76911926269531 -44.67996219435008
-48.69717250522791 112.76911926269531 -1.679962194233667
-48.69717250498053 112.76911926269531 -3.679962194233667
-48.697172500775025 112.76911926269531 -37.67996219423367
-48.697172500651334 112.76911926269531 -38.67996219423367
-48.69717250052764 112.76911926269531 -39.67996219423367
-48.69717250040395 112.76911926269531 -40.67996219423367
-48.69717249754083 113.75105394275519 -4.679962194119355
-48.697172497411685 113.76911926269531 -4.635923572129059
-48.69717249731414 113.78148227409801 -4.679962194115802
-48.69717249728254 113.76911926269531 -5.679962194117252
-48.6971724935718 113.76911926269531 -35.67996219411725
-48.69717249344811 113.76911926269531 -36.67996219411725
-48.697172489708265 114.76911926269531 -6.6799621940008365
-48.697172489584574 114.76911926269531 -7.6799621940008365
-48.69717248669059 114.72590610602245 -33.67996219400587
-48.69717248649229 114.76911926269531 -32.67996219400084
-48.69717248624491 114.76911926269531 -34.67996219400084
-48.69717248615919 114.79722774166191 -33.67996219399757
-48.6971724820103 115.76911926269531 -8.679962193884421
-48.69717248192805 115.76356053884533 -9.679962193885075
-48.6971724818242 115.77749613644039 -9.679962193883455
-48.69717248176292 115.76911926269531 -10.679962193884421
-48.697172479412785 115.76911926269531 -29.67996219388442
-48.697172479289094 115.76911926269531 -30.67996219388442
-48.6971724791654 115.76911926269531 -31.67996219388442
-48.69717247418865 116.76911926269531 -11.679962193768006
-48.697172473941265 116.76911926269531 -13.679962193768006
-48.697172473817574 116.76911926269531 -14.679962193768006
-48.69717247270435 116.76911926269531 -23.679962193768006
-48.69717247258066 116.76911926269531 -24.679962193768006
-48.69717247245697 116.76911926269531 -25.679962193768006
-48.69717247233328 116.76911926269531 -26.679962193768006
-48.69717247220959 116.76911926269531 -27.679962193768006
-48.697172472085896 116.76911926269531 -28.679962193768006
-48.6971724662433 117.76911926269531 -15.67996219365159
-48.69717246611961 117.76911926269531 -16.67996219365159
-48.69717246599592 117.76911926269531 -17.67996219365159
-48.69717246587223 117.76911926269531 -18.67996219365159
-48.69717246574854 117.76911926269531 -19.67996219365159
-48.697172465624845 117.76911926269531 -20.67996219365159
-48.697172465501154 117.76911926269531 -21.67996219365159
-48.69717246537746 117.76911926269531 -22.67996219365159
-48.677007718963665 115.76911926269531 -9.679962193877685
-47.69717308248062 36.76911926269531 87.32003779725346
-47.69717304510402 41.76911926269531 86.32003779783554
-47.69717301517801 45.76911926269531 85.3200377983012
-47.69717299850879 44.76911926269531 -109.67996220181521
-47.69717298525197 49.76911926269531 84.32003779876686
-47.69717298373132 46.76911926269531 -108.67996220158238
-47.69717296895385 48.76911926269531 -107.67996220134955
-47.697172962776534 52.76911926269531 83.32003779911611
-47.69717296162693 49.76911926269531 -106.67996220123314
-47.697172954300044 50.76911926269531 -105.67996220111672
-47.697172946973154 51.76911926269531 -104.67996220100031
-47.697172939646265 52.76911926269531 -103.67996220088389
-47.69717293285052 56.76911926269531 82.32003779958177
-47.697172932319376 53.76911926269531 -102.67996220076748
-47.697172924992486 54.76911926269531 -101.67996220065106
-47.69717291778929 55.76911926269531 -99.67996220053465
-47.6971729176656 55.76911926269531 -100.67996220053465
-47.69717291037509 59.76911926269531 81.32003779993101
-47.69717290313551 57.76911926269531 -97.67996220030182
-47.69717290301182 57.76911926269531 -98.67996220030182
-47.69717289580862 58.76911926269531 -96.6799622001854
-47.697172887899654 62.76911926269531 80.32003780028026
-47.69717288115484 60.76911926269531 -94.67996219995257
-47.69717288103115 60.76911926269531 -95.67996219995257
-47.69717288032538 63.76911926269531 79.32003780039668
-47.69717287382795 61.76911926269531 -93.67996219983615
-47.69717286650106 62.76911926269531 -92.67996219971974
-47.697172859174174 63.76911926269531 -91.67996219960332
-47.69717285784995 66.76911926269531 78.32003780074592
-47.697172844396704 65.76911926269531 -90.6799621993705
-47.6971728428251 68.76911926269531 77.32003780097875
-47.697172837069814 66.76911926269531 -89.67996219925408
-47.697172835250825 69.76911926269531 76.32003780109517
-47.697172829742925 67.76911926269531 -88.67996219913766
-47.697172822416036 68.76911926269531 -87.67996219902125
-47.69717282022597 71.76911926269531 75.320037801328
-47.6971728126517 72.76911926269531 74.32003780144441
-47.697172807638566 70.76911926269531 -86.67996219878842
-47.69717280031168 71.76911926269531 -85.679962198672
-47.69717279762685 74.76911926269531 73.32003780167724
-47.69717279298479 72.76911926269531 -84.67996219855559
-47.697172790052576 75.76911926269531 72.32003780179366
-47.69717277820732 74.76911926269531 -83.67996219832276
-47.697172775027724 77.76911926269531 71.32003780202649
-47.69717277088043 75.76911926269531 -82.67996219820634
-47.69717276745345 78.76911926269531 70.3200378021429
-47.69717275987918 79.76911926269531 69.32003780225932
-47.69717275610296 77.76911926269531 -81.67996219797351
-47.69717275230488 80.76911926269531 68.32003780237574
-47.69717274132549 79.76911926269531 -80.67996219774068
-47.69717273728003 82.76911926269531 67.32003780260857
-47.69717273399857 80.76911926269531 -79.67996219762426
-47.697172729705756 83.76911926269531 66.32003780272498
-47.69717272667168 81.76911926269531 -78.67996219750785
-47.697172722131484 84.76911926269531 65.3200378028414
-47.69717271455721 85.76911926269531 64.32003780295781
-47.69717271189421 83.76911926269531 -77.67996219727502
-47.69717270698294 86.76911926269531 63.32003780307423
-47.69717269940867 87.76911926269531 62.320037803190644
-47.69717269928498 87.76911926269531 61.320037803190644
-47.69717269711674 85.76911926269531 -76.67996219704219
-47.697172691710705 88.76911926269531 60.32003780330706
-47.69717268978985 86.76911926269531 -75.67996219692577
-47.69717268413643 89.76911926269531 59.320037803423475
-47.69717267656216 90.76911926269531 58.32003780353989
-47.69717267501238 88.76911926269531 -74.67996219669294
-47.69717266898789 91.76911926269531 57.320037803656305
-47.69717266141362 92.76911926269531 56.32003780377272
-47.69717266023491 90.76911926269531 -73.67996219646011
-47.697172653839345 93.76911926269531 55.320037803889136
-47.69717265290802 91.76911926269531 -72.6799621963437
-47.697172646265074 94.76911926269531 54.32003780400555
-47.6971726386908 95.76911926269531 53.32003780412197
-47.69717263813055 93.76911926269531 -71.67996219611086
-47.69717263111653 96.76911926269531 52.32003780423838
-47.69717263099284 96.76911926269531 51.32003780423838
-47.697172630803664 94.76911926269531 -70.67996219599445
-47.697172623476774 95.76911926269531 -69.67996219587803
-47.69717262341857 97.76911926269531 50.3200378043548
-47.697172616149885 96.76911926269531 -68.67996219576162
-47.697172615844295 98.76911926269531 49.32003780447121
-47.69717260827002 99.76911926269531 48.32003780458763
-47.697172601372415 98.76911926269531 -67.67996219552879
-47.69717260069575 100.76911926269531 47.32003780470404
-47.697172594045526 99.76911926269531 -66.67996219541237
-47.69717259312148 101.76911926269531 46.32003780482046
-47.69717258684233 100.76911926269531 -64.67996219529596
-47.69717258671864 100.76911926269531 -65.67996219529596
-47.69717258554721 102.76911926269531 45.320037804936874
-47.69717257951544 101.76911926269531 -63.67996219517954
-47.697172577972935 103.76911926269531 44.32003780505329
-47.69717257218855 102.76911926269531 -62.679962195063126
-47.69717257039866 104.76911926269531 43.320037805169704
-47.69717257027497 104.76911926269531 42.320037805169704
-47.69717256486166 103.76911926269531 -61.67996219494671
-47.6971725627007 105.76911926269531 41.32003780528612
-47.69717256257701 105.76911926269531 40.32003780528612
-47.697172559237345 105.76911926269531 13.32003780528612
-47.69717255753477 104.76911926269531 -60.679962194830296
-47.69717255500274 106.76911926269531 39.320037805402535
-47.697172554879046 106.76911926269531 38.320037805402535
-47.697172554755355 106.76911926269531 37.320037805402535
-47.697172551786764 106.76911926269531 13.320037805402535
-47.69717255166307 106.76911926269531 12.320037805402535
-47.69717255020788 105.76911926269531 -59.67996219471388
-47.69717254718108 107.76911926269531 36.32003780551895
-47.69717254705739 107.76911926269531 35.32003780551895
-47.6971725469337 107.76911926269531 34.32003780551895
-47.697172544583566 107.76911926269531 15.32003780551895
-47.697172544459875 107.76911926269531 14.32003780551895
-47.69717254421249 107.76911926269531 12.32003780551895
-47.6971725440888 107.76911926269531 11.32003780551895
-47.69717254396511 107.76911926269531 10.32003780551895
-47.69717254384142 107.76911926269531 9.32003780551895
-47.697172543594036 107.76911926269531 7.32003780551895
-47.69717254300468 106.76911926269531 -57.679962194597465
-47.69717254288099 106.76911926269531 -58.679962194597465
-47.69717253935943 108.76911926269531 33.320037805635366
-47.69717253923574 108.76911926269531 32.320037805635366
-47.697172539112046 108.76911926269531 31.320037805635366
-47.697172538988355 108.76911926269531 30.320037805635366
-47.69717253762775 108.76911926269531 19.320037805635366
-47.69717253738506 108.76848965184894 17.320037805635295
-47.69717253737048 108.77044673179594 17.320037805635522
-47.69717253725668 108.76911926269531 16.320037805635366
-47.697172536019764 108.76911926269531 6.320037805635366
-47.69717253589607 108.76911926269531 5.320037805635366
-47.697172535801485 107.76911926269531 -55.67996219448105
-47.697172535677794 107.76911926269531 -56.67996219448105
-47.69717253141408 109.76911926269531 29.32003780575178
-47.69717253129039 109.76911926269531 28.32003780575178
-47.6971725311667 109.76911926269531 27.32003780575178
-47.69717253104301 109.76911926269531 26.32003780575178
-47.69717253091932 109.76911926269531 25.32003780575178
-47.697172530795626 109.76911926269531 24.32003780575178
-47.697172530671935 109.76911926269531 23.32003780575178
-47.697172530548244 109.76911926269531 22.32003780575178
-47.69717253042455 109.76911926269531 21.32003780575178
-47.69717253030086 109.76911926269531 20.32003780575178
-47.69717253005348 109.76911926269531 18.32003780575178
-47.69717252872198 108.76911926269531 -52.679962194364634
-47.69717252859829 108.76911926269531 -53.679962194364634
-47.697172528474596 108.76911926269531 -54.679962194364634
-47.6971725283218 109.76911926269531 4.320037805751781
-47.69717252139509 109.76911926269531 -51.67996219424822
-47.69717252074753 110.76911926269531 3.3200378058681963
-47.69717252062384 110.76911926269531 2.3200378058681963
-47.69717251431558 110.76911926269531 -48.679962194131804
-47.69717251419189 110.76911926269531 -49.679962194131804
-47.6971725140682 110.76911926269531 -50.679962194131804
-47.697172513049566 111.76911926269531 1.3200378059846116
-47.69717251280218 111.76911926269531 -0.6799621940153884
-47.697172507236075 111.76911926269531 -45.67996219401539
-47.697172507112384 111.76911926269531 -46.67996219401539
-47.69717250698869 111.76911926269531 -47.67996219401539
-47.69717250522791 112.76911926269531 -1.679962193898973
-47.69717250510422 112.76911926269531 -2.679962193898973
-47.69717250040395 112.76911926269531 -40.67996219389897
-47.69717250028026 112.76911926269531 -41.67996219389897
-47.69717250015657 112.76911926269531 -42.67996219389897
-47.69717250003288 112.76911926269531 -43.67996219389897
-47.697172499909186 112.76911926269531 -44.67996219389897
-47.69717249752992 113.76911926269531 -3.6799621937825577
-47.69717249740623 113.76911926269531 -4.679962193782558
-47.697172493324416 113.76911926269531 -37.67996219378256
-47.697172493200725 113.76911926269531 -38.67996219378256
-47.69717249307703 113.76911926269531 -39.67996219378256
-47.69717248983196 114.76911926269531 -5.679962193666142
-47.697172489708265 114.76911926269531 -6.679962193666142
-47.6971724863686 114.76911926269531 -33.67996219366614
-47.69717248628294 114.76401799107865 -34.67996219366674
-47.69717248612122 114.76911926269531 -35.67996219366614
-47.69717248599753 114.76911926269531 -36.67996219366614
-47.69717248213399 115.76911926269531 -7.679962193549727
-47.6971724820103 115.76911926269531 -8.679962193549727
-47.6971724791654 115.76911926269531 -31.679962193549727
-47.69717247904171 115.76911926269531 -32.67996219354973
-47.69717247443603 116.76911926269531 -9.679962193433312
-47.69717247431234 116.76911926269531 -10.679962193433312
-47.697172474064956 116.76911926269531 -12.679962193433312
-47.69717247220959 116.76911926269531 -27.67996219343331
-47.697172472085896 116.76911926269531 -28.67996219343331
-47.697172471962205 116.76911926269531 -29.67996219343331
-47.69717247183851 116.76911926269531 -30.67996219343331
-47.697172466490684 117.76911926269531 -13.679962193316896
-47.69717246636699 117.76911926269531 -14.679962193316896
-47.69717246611961 117.76911926269531 -16.679962193316896
-47.69717246599592 117.76911926269531 -17.679962193316896
-47.69717246587223 117.76911926269531 -18.679962193316896
-47.69717246574854 117.76911926269531 -19.679962193316896
-47.697172465624845 117.76911926269531 -20.679962193316896
-47.697172465501154 117.76911926269531 -21.679962193316896
-47.69717246537746 117.76911926269531 -22.679962193316896
-47.69717246525377 117.76911926269531 -23.679962193316896
-47.69717246513008 117.76911926269531 -24.679962193316896
-47.69717246500639 117.76911926269531 -25.679962193316896
-47.6971724648827 117.76911926269531 -26.679962193316896
-47.695899732323994 108.76911926269531 17.320037805635792
-47.684338665475536 114.76911926269531 -34.67996219366185
-46.77278742720719 106.76911926269531 40.32003780571192
-46.724264822477636 108.76911926269531 34.32003780596099
-46.72230673474937 107.76911926269531 37.32003780584523
-46.69717308260431 36.76911926269531 88.32003779758816
-46.697173052678295 40.76911926269531 87.32003779805382
-46.69717302275228 44.76911926269531 86.32003779851948
-46.69717299282627 48.76911926269531 85.32003779898514
-46.69717298360763 46.76911926269531 -109.67996220124769
-46.697172970350806 51.76911926269531 84.32003779933439
-46.69717296883016 48.76911926269531 -108.67996220101486
-46.69717295405266 50.76911926269531 -107.67996220078203
-46.69717294672577 51.76911926269531 -106.67996220066561
-46.69717294042479 55.76911926269531 83.32003779980005
-46.69717293939888 52.76911926269531 -105.6799622005492
-46.69717293207199 53.76911926269531 -104.67996220043278
-46.697172924745104 54.76911926269531 -103.67996220031637
-46.69717291794936 58.76911926269531 82.3200378001493
-46.697172917418214 55.76911926269531 -102.67996220019995
-46.697172910215016 56.76911926269531 -100.67996220008354
-46.697172910091325 56.76911926269531 -101.67996220008354
-46.69717290288813 57.76911926269531 -99.67996219996712
-46.69717289556124 58.76911926269531 -98.6799621998507
-46.697172895473926 61.76911926269531 81.32003780049854
-46.69717288823435 59.76911926269531 -97.67996219973429
-46.69717288090746 60.76911926269531 -96.67996219961788
-46.69717287358057 61.76911926269531 -95.67996219950146
-46.69717287299849 64.76911926269531 80.32003780084779
-46.69717286625368 62.76911926269531 -94.67996219938505
-46.69717285892679 63.76911926269531 -93.67996219926863
-46.69717285797364 66.76911926269531 79.32003780108062
-46.6971728515999 64.76911926269531 -92.67996219915221
-46.69717284427301 65.76911926269531 -91.6799621990358
-46.69717284294879 68.76911926269531 78.32003780131345
-46.697172835374516 69.76911926269531 77.32003780142986
-46.69717282949554 67.76911926269531 -90.67996219880297
-46.69717282216865 68.76911926269531 -89.67996219868655
-46.697172820349664 71.76911926269531 76.32003780166269
-46.697172814841764 69.76911926269531 -88.67996219857014
-46.69717281277539 72.76911926269531 75.32003780177911
-46.697172807514875 70.76911926269531 -87.67996219845372
-46.69717280520112 73.76911926269531 74.32003780189552
-46.697172800187985 71.76911926269531 -86.67996219833731
-46.69717279017627 75.76911926269531 73.32003780212835
-46.697172785410515 73.76911926269531 -85.67996219810448
-46.697172782601996 76.76911926269531 72.32003780224477
-46.697172778083626 74.76911926269531 -84.67996219798806
-46.69717276757714 78.76911926269531 71.3200378024776
-46.697172763306156 76.76911926269531 -83.67996219775523
-46.69717276000287 79.76911926269531 70.32003780259402
-46.69717275242857 80.76911926269531 69.32003780271043
-46.697172748528686 78.76911926269531 -82.6799621975224
-46.6971727448543 81.76911926269531 68.32003780282685
-46.6971727412018 79.76911926269531 -81.67996219740598
-46.69717273387488 80.76911926269531 -80.67996219728957
-46.69717272982945 83.76911926269531 67.32003780305968
-46.697172722255175 84.76911926269531 66.32003780317609
-46.69717271909741 82.76911926269531 -79.67996219705674
-46.6971727146809 85.76911926269531 65.32003780329251
-46.69717270710663 86.76911926269531 64.32003780340892
-46.69717270431994 84.76911926269531 -78.67996219682391
-46.69717269953236 87.76911926269531 63.32003780352534
-46.69717269699305 85.76911926269531 -77.67996219670749
-46.69717269195809 88.76911926269531 62.32003780364175
-46.697172691834396 88.76911926269531 61.32003780364175
-46.697172684260124 89.76911926269531 60.32003780375817
-46.69717268221558 87.76911926269531 -76.67996219647466
-46.69717267668585 90.76911926269531 59.320037803874584
-46.69717267488869 88.76911926269531 -75.67996219635825
-46.69717266911158 91.76911926269531 58.320037803991
-46.6971726675618 89.76911926269531 -74.67996219624183
-46.69717266153731 92.76911926269531 57.320037804107415
-46.69717265396304 93.76911926269531 56.32003780422383
-46.69717265278433 91.76911926269531 -73.679962196009
-46.697172646388765 94.76911926269531 55.320037804340245
-46.69717263881449 95.76911926269531 54.32003780445666
-46.69717263800686 93.76911926269531 -72.67996219577617
-46.69717263124022 96.76911926269531 53.320037804573076
-46.69717263111653 96.76911926269531 52.320037804573076
-46.69717263067997 94.76911926269531 -71.67996219565975
-46.69717262354226 97.76911926269531 51.32003780468949
-46.697172615967986 98.76911926269531 50.32003780480591
-46.6971726159025 96.76911926269531 -70.67996219542692
-46.69717260857561 97.76911926269531 -69.67996219531051
-46.697172608393714 99.76911926269531 49.32003780492232
-46.697172601248724 98.76911926269531 -68.6799621951941
-46.69717260081944 100.76911926269531 48.32003780503874
-46.697172593921835 99.76911926269531 -67.67996219507768
-46.69717259324517 101.76911926269531 47.32003780515515
-46.697172586594945 100.76911926269531 -66.67996219496126
-46.6971725856709 102.76911926269531 46.32003780527157
-46.69717257939175 101.76911926269531 -64.67996219484485
-46.697172579268056 101.76911926269531 -65.67996219484485
-46.69717257809663 103.76911926269531 45.32003780538798
-46.697172570522355 104.76911926269531 44.3200378055044
-46.69717256473797 103.76911926269531 -62.67996219461202
-46.69717256461428 103.76911926269531 -63.67996219461202
-46.69717256294808 105.76911926269531 43.320037805620814
-46.69717256282439 105.76911926269531 42.320037805620814
-46.697172559237345 105.76911926269531 13.320037805620814
-46.69717255741108 104.76911926269531 -61.6799621944956
-46.69717255551927 106.71639191817258 40.32003780573109
-46.69717255525012 106.76911926269531 41.32003780573723
-46.69717255500274 106.76911926269531 39.32003780573723
-46.697172554877625 106.80251351449027 40.32003780574112
-46.697172551786764 106.76911926269531 13.320037805737229
-46.69717255008419 105.76911926269531 -60.679962194379186
-46.697172547428465 107.76911926269531 38.320037805853644
-46.69717254742099 107.75351933205377 37.320037805851825
-46.69717254723065 107.77906685205812 37.32003780585481
-46.69717254718108 107.76911926269531 36.320037805853644
-46.697172544459875 107.76911926269531 14.320037805853644
-46.69717254424401 107.76911926269531 12.57485020908318
-46.69717254409383 107.78504392205164 12.320037805855506
-46.6971725440888 107.76911926269531 11.320037805853644
-46.69717254371773 107.76911926269531 8.320037805853644
-46.6971725427573 106.76911926269531 -59.67996219426277
-46.69717253960681 108.76911926269531 35.32003780597006
-46.697172539605816 108.75264915213927 34.32003780596814
-46.69717253940189 108.78002036265221 34.32003780597134
-46.69717253935943 108.76911926269531 33.32003780597006
-46.69717253725668 108.76911926269531 16.32003780597006
-46.697172537132985 108.76911926269531 15.32003780597006
-46.69717253651453 108.76911926269531 10.32003780597006
-46.69717253639084 108.76911926269531 9.32003780597006
-46.697172536143455 108.76911926269531 7.32003780597006
-46.69717253589607 108.76911926269531 5.32003780597006
-46.6971725355541 107.76911926269531 -57.679962194146356
-46.69717253543041 107.76911926269531 -58.679962194146356
-46.69717253178516 109.76911926269531 32.320037806086475
-46.697172531661465 109.76911926269531 31.320037806086475
-46.697172531537774 109.76911926269531 30.320037806086475
-46.69717253141408 109.76911926269531 29.320037806086475
-46.69717253129039 109.76911926269531 28.320037806086475
-46.6971725311667 109.76911926269531 27.320037806086475
-46.69717253104301 109.76911926269531 26.320037806086475
-46.69717253091932 109.76911926269531 25.320037806086475
-46.697172530795626 109.76911926269531 24.320037806086475
-46.697172530671935 109.76911926269531 23.320037806086475
-46.697172530548244 109.76911926269531 22.320037806086475
-46.69717253042455 109.76911926269531 21.320037806086475
-46.69717253030086 109.76911926269531 20.320037806086475
-46.69717253017717 109.76911926269531 19.320037806086475
-46.69717253010026 109.7628388373135 18.32003780608575
-46.69717252999794 109.77656993528478 18.320037806087342
-46.69717252992979 109.76911926269531 17.320037806086475
